-0.6816 0.6598 0.3162 -0.6816 0.6598 0.3162 
-0.9602 -0.2782 -0.0263 -0.9602 -0.2782 -0.0263 
0.3916 0.4576 0.7983 0.3916 0.4576 0.7983 
-0.5118 0.3432 0.7876 -0.5118 0.3432 0.7876 
-0.2776 0.9581 -0.0705 -0.2776 0.9581 -0.0705 
0.8468 0.3409 -0.4083 0.8468 0.3409 -0.4083 
-0.1839 0.9266 0.3281 -0.1839 0.9266 0.3281 
-0.1792 0.3024 -0.9362 -0.1792 0.3024 -0.9362 
0.5265 0.7279 0.4393 0.5265 0.7279 0.4393 
0.5656 0.5791 -0.5872 0.5656 0.5791 -0.5872 
-0.2669 0.6921 0.6706 -0.2669 0.6921 0.6706 
-0.7280 -0.6512 -0.2144 -0.7280 -0.6512 -0.2144 
0.0038 0.3917 -0.9201 0.0038 0.3917 -0.9201 
-0.4032 0.8390 0.3652 -0.4032 0.8390 0.3652 
-0.7875 -0.4742 0.3936 -0.7875 -0.4742 0.3936 
0.3063 -0.8299 -0.4663 0.3063 -0.8299 -0.4663 
-0.7374 0.0856 0.6700 -0.7374 0.0856 0.6700 
0.1533 0.9842 0.0890 0.1533 0.9842 0.0890 
0.6882 0.6322 -0.3560 0.6882 0.6322 -0.3560 
-0.2112 0.6336 -0.7442 -0.2112 0.6336 -0.7442 
-0.0011 0.9262 -0.3769 -0.0011 0.9262 -0.3769 
-0.0370 0.9671 -0.2516 -0.0370 0.9671 -0.2516 
0.6262 -0.0294 -0.7791 0.6262 -0.0294 -0.7791 
0.5474 0.4133 -0.7277 0.5474 0.4133 -0.7277 
0.1061 0.9348 -0.3390 0.1061 0.9348 -0.3390 
-0.9117 0.3359 -0.2367 -0.9117 0.3359 -0.2367 
-0.0435 0.2499 0.9673 -0.0435 0.2499 0.9673 
-0.1460 -0.5278 0.8367 -0.1460 -0.5278 0.8367 
0.6827 0.6661 0.3005 0.6827 0.6661 0.3005 
-0.6995 -0.4294 -0.5712 -0.6995 -0.4294 -0.5712 
0.3183 0.8728 -0.3701 0.3183 0.8728 -0.3701 
0.8981 -0.2406 -0.3681 0.8981 -0.2406 -0.3681 
-0.3846 -0.6360 0.6690 -0.3846 -0.6360 0.6690 
-0.2094 -0.9655 0.1551 -0.2094 -0.9655 0.1551 
-0.4682 0.8680 0.1656 -0.4682 0.8680 0.1656 
0.4716 0.5934 -0.6523 0.4716 0.5934 -0.6523 
-0.6990 -0.4213 0.5778 -0.6990 -0.4213 0.5778 
-0.5404 0.3799 0.7508 -0.5404 0.3799 0.7508 
-0.6185 0.3365 0.7101 -0.6185 0.3365 0.7101 
0.5621 -0.7647 -0.3150 0.5621 -0.7647 -0.3150 
-0.6421 0.3801 -0.6658 -0.6421 0.3801 -0.6658 
0.2839 0.8076 0.5169 0.2839 0.8076 0.5169 
0.5511 0.6984 0.4567 0.5511 0.6984 0.4567 
0.3657 -0.3263 0.8717 0.3657 -0.3263 0.8717 
-0.6858 0.7278 -0.0060 -0.6858 0.7278 -0.0060 
0.8135 0.1947 -0.5480 0.8135 0.1947 -0.5480 
0.7945 0.5240 0.3068 0.7945 0.5240 0.3068 
0.2940 0.9179 -0.2666 0.2940 0.9179 -0.2666 
0.1485 -0.7022 -0.6963 0.1485 -0.7022 -0.6963 
-0.0019 0.7172 -0.6968 -0.0019 0.7172 -0.6968 
0.5524 -0.6777 0.4855 0.5524 -0.6777 0.4855 
-0.9253 0.3204 -0.2030 -0.9253 0.3204 -0.2030 
0.4728 0.1622 -0.8661 0.4728 0.1622 -0.8661 
-0.3009 -0.7985 0.5213 -0.3009 -0.7985 0.5213 
-0.9383 -0.3457 -0.0050 -0.9383 -0.3457 -0.0050 
0.4078 -0.5600 -0.7212 0.4078 -0.5600 -0.7212 
-0.5996 -0.6663 0.4432 -0.5996 -0.6663 0.4432 
0.6245 0.4668 0.6262 0.6245 0.4668 0.6262 
-0.7191 -0.4335 0.5431 -0.7191 -0.4335 0.5431 
-0.6912 0.5612 0.4552 -0.6912 0.5612 0.4552 
-0.5470 0.1583 0.8220 -0.5470 0.1583 0.8220 
-0.9881 0.1515 0.0246 -0.9881 0.1515 0.0246 
-0.1177 -0.5960 -0.7943 -0.1177 -0.5960 -0.7943 
0.7064 0.0930 -0.7017 0.7064 0.0930 -0.7017 
-0.0552 0.9057 0.4203 -0.0552 0.9057 0.4203 
0.8537 0.0687 0.5162 0.8537 0.0687 0.5162 
-0.7971 0.2101 0.5661 -0.7971 0.2101 0.5661 
0.9189 -0.3944 -0.0035 0.9189 -0.3944 -0.0035 
0.2807 -0.1531 0.9475 0.2807 -0.1531 0.9475 
-0.6752 0.7267 0.1269 -0.6752 0.7267 0.1269 
-0.5804 0.5744 -0.5773 -0.5804 0.5744 -0.5773 
0.6670 0.7021 0.2493 0.6670 0.7021 0.2493 
-0.1804 -0.3471 0.9203 -0.1804 -0.3471 0.9203 
-0.0567 -0.9155 -0.3982 -0.0567 -0.9155 -0.3982 
0.4670 0.3211 -0.8239 0.4670 0.3211 -0.8239 
-0.5998 0.4496 0.6619 -0.5998 0.4496 0.6619 
-0.8228 0.3560 -0.4431 -0.8228 0.3560 -0.4431 
0.9492 0.0168 0.3142 0.9492 0.0168 0.3142 
-0.0789 -0.7248 -0.6844 -0.0789 -0.7248 -0.6844 
-0.7537 -0.1062 0.6486 -0.7537 -0.1062 0.6486 
0.8326 0.1627 0.5294 0.8326 0.1627 0.5294 
0.9524 -0.0757 0.2953 0.9524 -0.0757 0.2953 
-0.0176 0.6487 0.7609 -0.0176 0.6487 0.7609 
-0.4640 -0.2577 -0.8475 -0.4640 -0.2577 -0.8475 
0.2994 -0.7834 0.5446 0.2994 -0.7834 0.5446 
0.9285 -0.2110 -0.3057 0.9285 -0.2110 -0.3057 
-0.0601 0.1403 -0.9883 -0.0601 0.1403 -0.9883 
0.9654 0.0641 0.2527 0.9654 0.0641 0.2527 
-0.1495 0.9383 0.3119 -0.1495 0.9383 0.3119 
0.0676 -0.6284 -0.7749 0.0676 -0.6284 -0.7749 
-0.4357 0.8408 0.3212 -0.4357 0.8408 0.3212 
0.6947 0.4187 -0.5849 0.6947 0.4187 -0.5849 
0.0621 -0.4879 -0.8707 0.0621 -0.4879 -0.8707 
0.1937 0.6457 -0.7386 0.1937 0.6457 -0.7386 
0.4680 -0.8771 0.1076 0.4680 -0.8771 0.1076 
-0.0898 -0.7256 0.6822 -0.0898 -0.7256 0.6822 
0.9932 -0.0742 0.0903 0.9932 -0.0742 0.0903 
0.6169 -0.3839 -0.6871 0.6169 -0.3839 -0.6871 
-0.0464 0.3397 -0.9394 -0.0464 0.3397 -0.9394 
-0.6650 -0.5333 -0.5229 -0.6650 -0.5333 -0.5229 
-0.5704 -0.0381 -0.8205 -0.5704 -0.0381 -0.8205 
0.7114 -0.1485 0.6869 0.7114 -0.1485 0.6869 
-0.6188 0.6169 -0.4864 -0.6188 0.6169 -0.4864 
-0.8891 -0.0878 0.4491 -0.8891 -0.0878 0.4491 
0.0793 -0.6829 0.7262 0.0793 -0.6829 0.7262 
-0.7139 0.0950 0.6938 -0.7139 0.0950 0.6938 
-0.9447 -0.2158 -0.2470 -0.9447 -0.2158 -0.2470 
0.3215 -0.7910 0.5205 0.3215 -0.7910 0.5205 
0.3557 0.7630 -0.5397 0.3557 0.7630 -0.5397 
0.3461 0.9380 0.0212 0.3461 0.9380 0.0212 
0.5205 -0.4823 0.7047 0.5205 -0.4823 0.7047 
-0.7527 -0.6426 -0.1431 -0.7527 -0.6426 -0.1431 
0.7149 -0.6486 -0.2613 0.7149 -0.6486 -0.2613 
-0.7352 -0.4390 0.5164 -0.7352 -0.4390 0.5164 
0.4466 0.4871 0.7505 0.4466 0.4871 0.7505 
0.4116 0.9107 -0.0363 0.4116 0.9107 -0.0363 
0.1243 0.7244 0.6781 0.1243 0.7244 0.6781 
0.8202 -0.0192 -0.5718 0.8202 -0.0192 -0.5718 
0.1368 -0.6294 0.7650 0.1368 -0.6294 0.7650 
0.6406 0.4500 0.6221 0.6406 0.4500 0.6221 
-0.2125 0.2739 -0.9380 -0.2125 0.2739 -0.9380 
-0.2641 0.3315 -0.9057 -0.2641 0.3315 -0.9057 
0.7520 0.1209 -0.6479 0.7520 0.1209 -0.6479 
-0.9593 0.2777 -0.0507 -0.9593 0.2777 -0.0507 
0.8543 -0.2643 -0.4476 0.8543 -0.2643 -0.4476 
0.5350 -0.6617 -0.5253 0.5350 -0.6617 -0.5253 
-0.2554 0.1832 -0.9493 -0.2554 0.1832 -0.9493 
-0.9820 0.1745 0.0721 -0.9820 0.1745 0.0721 
-0.1476 -0.9286 0.3404 -0.1476 -0.9286 0.3404 
-0.1908 -0.9647 -0.1816 -0.1908 -0.9647 -0.1816 
-0.4296 -0.1796 -0.8850 -0.4296 -0.1796 -0.8850 
-0.4679 0.7502 0.4672 -0.4679 0.7502 0.4672 
-0.2352 0.3059 -0.9225 -0.2352 0.3059 -0.9225 
0.4003 0.5268 0.7498 0.4003 0.5268 0.7498 
-0.6844 0.3861 -0.6185 -0.6844 0.3861 -0.6185 
-0.2604 0.2580 -0.9304 -0.2604 0.2580 -0.9304 
0.0719 0.8279 0.5562 0.0719 0.8279 0.5562 
0.2018 -0.8677 -0.4542 0.2018 -0.8677 -0.4542 
-0.9392 0.3382 -0.0599 -0.9392 0.3382 -0.0599 
0.4455 -0.8948 -0.0287 0.4455 -0.8948 -0.0287 
-0.6533 -0.2993 0.6955 -0.6533 -0.2993 0.6955 
-0.8068 0.3633 0.4658 -0.8068 0.3633 0.4658 
0.6003 -0.7073 -0.3734 0.6003 -0.7073 -0.3734 
-0.5975 0.3729 -0.7099 -0.5975 0.3729 -0.7099 
0.6743 0.6631 0.3252 0.6743 0.6631 0.3252 
-0.8168 -0.3490 -0.4595 -0.8168 -0.3490 -0.4595 
-0.3508 0.7658 -0.5389 -0.3508 0.7658 -0.5389 
-0.9774 -0.1525 -0.1467 -0.9774 -0.1525 -0.1467 
-0.0495 0.0696 -0.9964 -0.0495 0.0696 -0.9964 
0.7238 -0.3973 -0.5641 0.7238 -0.3973 -0.5641 
-0.4523 -0.8761 -0.1669 -0.4523 -0.8761 -0.1669 
-0.4044 0.1350 -0.9046 -0.4044 0.1350 -0.9046 
-0.8402 -0.1505 -0.5210 -0.8402 -0.1505 -0.5210 
-0.4037 0.0063 0.9149 -0.4037 0.0063 0.9149 
-0.4466 -0.1731 0.8778 -0.4466 -0.1731 0.8778 
-0.8571 0.0726 -0.5100 -0.8571 0.0726 -0.5100 
-0.3435 0.6247 -0.7012 -0.3435 0.6247 -0.7012 
0.0660 -0.9963 0.0558 0.0660 -0.9963 0.0558 
0.7325 -0.0280 -0.6802 0.7325 -0.0280 -0.6802 
-0.9034 -0.1367 -0.4065 -0.9034 -0.1367 -0.4065 
-0.5574 0.7409 0.3748 -0.5574 0.7409 0.3748 
0.4502 -0.6747 -0.5849 0.4502 -0.6747 -0.5849 
0.7111 -0.6074 0.3541 0.7111 -0.6074 0.3541 
-0.8159 0.0410 -0.5768 -0.8159 0.0410 -0.5768 
0.8131 0.5626 0.1497 0.8131 0.5626 0.1497 
0.5751 0.5592 -0.5971 0.5751 0.5592 -0.5971 
-0.5767 -0.4748 0.6649 -0.5767 -0.4748 0.6649 
-0.5496 0.2786 -0.7876 -0.5496 0.2786 -0.7876 
0.7575 0.6490 -0.0711 0.7575 0.6490 -0.0711 
0.4450 0.4257 0.7879 0.4450 0.4257 0.7879 
-0.6511 0.6340 0.4174 -0.6511 0.6340 0.4174 
0.4099 0.2471 0.8780 0.4099 0.2471 0.8780 
0.8650 -0.0712 -0.4967 0.8650 -0.0712 -0.4967 
0.4828 -0.0582 0.8738 0.4828 -0.0582 0.8738 
0.9582 -0.1116 0.2635 0.9582 -0.1116 0.2635 
-0.5003 -0.8048 -0.3193 -0.5003 -0.8048 -0.3193 
0.1408 -0.8303 0.5392 0.1408 -0.8303 0.5392 
0.0721 0.1583 -0.9848 0.0721 0.1583 -0.9848 
0.0402 -0.5696 0.8210 0.0402 -0.5696 0.8210 
-0.7234 0.6644 0.1879 -0.7234 0.6644 0.1879 
0.6403 -0.7599 0.1118 0.6403 -0.7599 0.1118 
0.5013 0.5466 -0.6708 0.5013 0.5466 -0.6708 
0.6128 0.6092 0.5033 0.6128 0.6092 0.5033 
0.7606 -0.2620 -0.5940 0.7606 -0.2620 -0.5940 
0.4502 -0.8425 0.2957 0.4502 -0.8425 0.2957 
-0.4584 0.0767 0.8854 -0.4584 0.0767 0.8854 
0.3878 -0.8622 -0.3258 0.3878 -0.8622 -0.3258 
-0.5144 0.1708 0.8404 -0.5144 0.1708 0.8404 
0.0358 -0.7048 -0.7085 0.0358 -0.7048 -0.7085 
-0.1256 -0.6606 -0.7401 -0.1256 -0.6606 -0.7401 
-0.5621 -0.6038 -0.5653 -0.5621 -0.6038 -0.5653 
0.3254 0.6012 0.7299 0.3254 0.6012 0.7299 
0.9875 -0.1568 -0.0156 0.9875 -0.1568 -0.0156 
0.0410 -0.3196 0.9467 0.0410 -0.3196 0.9467 
0.2557 -0.6343 0.7296 0.2557 -0.6343 0.7296 
-0.7832 -0.6097 0.1218 -0.7832 -0.6097 0.1218 
-0.4848 -0.8586 0.1665 -0.4848 -0.8586 0.1665 
0.1871 -0.4811 -0.8565 0.1871 -0.4811 -0.8565 
-0.1299 0.8045 -0.5796 -0.1299 0.8045 -0.5796 
0.1399 -0.8573 -0.4955 0.1399 -0.8573 -0.4955 
0.3687 -0.7847 -0.4982 0.3687 -0.7847 -0.4982 
0.2337 0.7255 -0.6473 0.2337 0.7255 -0.6473 
-0.2628 0.9442 0.1984 -0.2628 0.9442 0.1984 
0.6497 -0.3261 0.6867 0.6497 -0.3261 0.6867 
0.3630 0.6421 -0.6753 0.3630 0.6421 -0.6753 
0.6711 -0.6343 -0.3839 0.6711 -0.6343 -0.3839 
-0.8960 -0.0026 -0.4441 -0.8960 -0.0026 -0.4441 
0.6210 -0.7060 0.3405 0.6210 -0.7060 0.3405 
-0.9957 0.0410 0.0834 -0.9957 0.0410 0.0834 
-0.3505 -0.7791 0.5198 -0.3505 -0.7791 0.5198 
0.3541 0.3280 -0.8758 0.3541 0.3280 -0.8758 
-0.6721 -0.3080 -0.6733 -0.6721 -0.3080 -0.6733 
-0.6781 0.4119 0.6087 -0.6781 0.4119 0.6087 
0.4474 0.2789 -0.8498 0.4474 0.2789 -0.8498 
0.3193 -0.2295 -0.9195 0.3193 -0.2295 -0.9195 
0.3833 -0.8281 -0.4089 0.3833 -0.8281 -0.4089 
-0.8240 -0.1134 0.5551 -0.8240 -0.1134 0.5551 
-0.1960 -0.4236 0.8844 -0.1960 -0.4236 0.8844 
-0.9125 -0.3572 -0.1995 -0.9125 -0.3572 -0.1995 
0.7128 0.6922 -0.1129 0.7128 0.6922 -0.1129 
-0.1161 -0.4433 -0.8888 -0.1161 -0.4433 -0.8888 
0.2988 -0.8225 -0.4839 0.2988 -0.8225 -0.4839 
0.2384 0.0057 -0.9712 0.2384 0.0057 -0.9712 
-0.2380 -0.7288 0.6421 -0.2380 -0.7288 0.6421 
0.0181 0.7148 -0.6991 0.0181 0.7148 -0.6991 
0.3425 0.1122 -0.9328 0.3425 0.1122 -0.9328 
0.8668 0.0916 0.4902 0.8668 0.0916 0.4902 
0.3295 0.6610 -0.6742 0.3295 0.6610 -0.6742 
0.2700 -0.9309 -0.2458 0.2700 -0.9309 -0.2458 
-0.6660 0.3316 -0.6682 -0.6660 0.3316 -0.6682 
0.0446 -0.9062 -0.4205 0.0446 -0.9062 -0.4205 
0.4114 0.6885 0.5973 0.4114 0.6885 0.5973 
-0.7942 -0.3089 -0.5233 -0.7942 -0.3089 -0.5233 
-0.7955 0.5694 -0.2072 -0.7955 0.5694 -0.2072 
0.7837 -0.4712 -0.4047 0.7837 -0.4712 -0.4047 
-0.6943 0.5206 0.4970 -0.6943 0.5206 0.4970 
-0.4328 0.7336 -0.5239 -0.4328 0.7336 -0.5239 
-0.8872 -0.1230 -0.4447 -0.8872 -0.1230 -0.4447 
-0.6294 -0.7445 -0.2224 -0.6294 -0.7445 -0.2224 
0.0396 -0.6984 -0.7146 0.0396 -0.6984 -0.7146 
0.2347 0.4785 -0.8461 0.2347 0.4785 -0.8461 
0.6064 -0.3464 -0.7157 0.6064 -0.3464 -0.7157 
0.4267 -0.6797 -0.5966 0.4267 -0.6797 -0.5966 
0.5974 -0.0126 -0.8019 0.5974 -0.0126 -0.8019 
-0.7919 -0.2258 -0.5674 -0.7919 -0.2258 -0.5674 
0.0352 0.0074 -0.9994 0.0352 0.0074 -0.9994 
-0.3413 0.6911 0.6371 -0.3413 0.6911 0.6371 
0.2947 0.8729 -0.3889 0.2947 0.8729 -0.3889 
0.7396 -0.6327 -0.2295 0.7396 -0.6327 -0.2295 
-0.7858 0.5991 -0.1535 -0.7858 0.5991 -0.1535 
-0.1369 -0.5972 -0.7903 -0.1369 -0.5972 -0.7903 
0.4435 -0.8422 -0.3067 0.4435 -0.8422 -0.3067 
0.6228 0.6150 0.4835 0.6228 0.6150 0.4835 
-0.7936 0.0707 -0.6044 -0.7936 0.0707 -0.6044 
-0.7869 0.5865 0.1922 -0.7869 0.5865 0.1922 
-0.1259 -0.4579 -0.8801 -0.1259 -0.4579 -0.8801 
0.1426 0.2138 0.9664 0.1426 0.2138 0.9664 
-0.1697 -0.4675 0.8675 -0.1697 -0.4675 0.8675 
0.3575 -0.4900 -0.7951 0.3575 -0.4900 -0.7951 
-0.9215 0.1064 0.3734 -0.9215 0.1064 0.3734 
0.0458 0.7918 0.6090 0.0458 0.7918 0.6090 
0.2279 0.3607 0.9044 0.2279 0.3607 0.9044 
0.9133 -0.1724 0.3690 0.9133 -0.1724 0.3690 
0.4776 -0.0941 -0.8736 0.4776 -0.0941 -0.8736 
0.5267 0.1719 -0.8325 0.5267 0.1719 -0.8325 
-0.1910 -0.8948 -0.4035 -0.1910 -0.8948 -0.4035 
-0.0109 0.2726 0.9621 -0.0109 0.2726 0.9621 
-0.0640 -0.8110 -0.5815 -0.0640 -0.8110 -0.5815 
-0.3528 0.8323 -0.4276 -0.3528 0.8323 -0.4276 
-0.0949 0.5557 0.8259 -0.0949 0.5557 0.8259 
-0.6366 -0.3102 0.7061 -0.6366 -0.3102 0.7061 
0.7419 0.6534 0.1508 0.7419 0.6534 0.1508 
0.5922 0.5200 -0.6155 0.5922 0.5200 -0.6155 
0.9332 0.3447 -0.1011 0.9332 0.3447 -0.1011 
0.6706 -0.2178 -0.7091 0.6706 -0.2178 -0.7091 
0.6534 0.4501 -0.6087 0.6534 0.4501 -0.6087 
-0.6777 -0.5074 0.5323 -0.6777 -0.5074 0.5323 
-0.7554 0.4305 0.4940 -0.7554 0.4305 0.4940 
-0.5632 -0.8263 -0.0059 -0.5632 -0.8263 -0.0059 
0.5047 0.3247 -0.7999 0.5047 0.3247 -0.7999 
0.2659 0.8619 0.4319 0.2659 0.8619 0.4319 
-0.0990 0.9731 0.2081 -0.0990 0.9731 0.2081 
-0.9143 0.3945 -0.0913 -0.9143 0.3945 -0.0913 
-0.6280 -0.2403 -0.7402 -0.6280 -0.2403 -0.7402 
0.2490 -0.8940 -0.3726 0.2490 -0.8940 -0.3726 
0.3038 -0.7014 -0.6447 0.3038 -0.7014 -0.6447 
0.8427 -0.5038 -0.1900 0.8427 -0.5038 -0.1900 
0.0783 -0.2337 -0.9691 0.0783 -0.2337 -0.9691 
-0.6200 0.5173 -0.5900 -0.6200 0.5173 -0.5900 
0.5559 -0.3714 0.7436 0.5559 -0.3714 0.7436 
-0.7366 0.6512 0.1826 -0.7366 0.6512 0.1826 
0.6184 -0.4962 -0.6094 0.6184 -0.4962 -0.6094 
-0.4703 -0.1245 0.8737 -0.4703 -0.1245 0.8737 
0.7639 0.0809 -0.6403 0.7639 0.0809 -0.6403 
0.4499 -0.8776 0.1658 0.4499 -0.8776 0.1658 
-0.7733 0.4842 0.4092 -0.7733 0.4842 0.4092 
-0.4570 0.0722 -0.8865 -0.4570 0.0722 -0.8865 
0.4143 -0.9066 -0.0799 0.4143 -0.9066 -0.0799 
0.6831 -0.2631 -0.6812 0.6831 -0.2631 -0.6812 
-0.6782 -0.7237 -0.1274 -0.6782 -0.7237 -0.1274 
-0.7983 -0.4921 -0.3471 -0.7983 -0.4921 -0.3471 
0.3486 0.8757 0.3341 0.3486 0.8757 0.3341 
0.6654 -0.4837 -0.5686 0.6654 -0.4837 -0.5686 
0.8012 0.5701 0.1819 0.8012 0.5701 0.1819 
-0.6571 0.1768 0.7328 -0.6571 0.1768 0.7328 
0.9315 0.3470 -0.1093 0.9315 0.3470 -0.1093 
0.1663 0.6330 0.7561 0.1663 0.6330 0.7561 
0.3099 0.2285 -0.9229 0.3099 0.2285 -0.9229 
-0.9746 -0.0553 -0.2171 -0.9746 -0.0553 -0.2171 
-0.8437 0.4946 0.2089 -0.8437 0.4946 0.2089 
0.4505 0.5229 0.7236 0.4505 0.5229 0.7236 
0.8964 -0.2219 0.3838 0.8964 -0.2219 0.3838 
0.3645 -0.3376 0.8679 0.3645 -0.3376 0.8679 
0.6808 -0.4594 0.5705 0.6808 -0.4594 0.5705 
-0.4564 0.4726 -0.7539 -0.4564 0.4726 -0.7539 
-0.7463 0.0869 0.6599 -0.7463 0.0869 0.6599 
0.0095 -0.7407 0.6718 0.0095 -0.7407 0.6718 
-0.0147 0.9668 -0.2550 -0.0147 0.9668 -0.2550 
0.0867 0.7252 0.6831 0.0867 0.7252 0.6831 
0.8079 -0.5838 0.0804 0.8079 -0.5838 0.0804 
0.0635 0.8192 -0.5700 0.0635 0.8192 -0.5700 
-0.4406 0.8332 0.3341 -0.4406 0.8332 0.3341 
-0.6870 -0.0128 0.7266 -0.6870 -0.0128 0.7266 
0.7784 -0.5341 -0.3297 0.7784 -0.5341 -0.3297 
0.1834 0.1577 0.9703 0.1834 0.1577 0.9703 
0.9280 0.3537 0.1169 0.9280 0.3537 0.1169 
0.4978 -0.7576 0.4222 0.4978 -0.7576 0.4222 
0.3443 0.9342 0.0940 0.3443 0.9342 0.0940 
0.8193 -0.5614 -0.1163 0.8193 -0.5614 -0.1163 
0.7006 -0.6876 0.1908 0.7006 -0.6876 0.1908 
-0.4536 0.8503 -0.2669 -0.4536 0.8503 -0.2669 
0.2972 0.8755 -0.3811 0.2972 0.8755 -0.3811 
-0.3358 -0.8145 0.4731 -0.3358 -0.8145 0.4731 
-0.2984 0.6151 -0.7298 -0.2984 0.6151 -0.7298 
0.8324 0.0438 0.5524 0.8324 0.0438 0.5524 
0.3626 -0.4396 -0.8217 0.3626 -0.4396 -0.8217 
-0.6070 -0.7487 -0.2665 -0.6070 -0.7487 -0.2665 
0.5930 0.2200 0.7746 0.5930 0.2200 0.7746 
-0.3144 0.2806 -0.9069 -0.3144 0.2806 -0.9069 
0.8532 -0.0905 -0.5137 0.8532 -0.0905 -0.5137 
-0.1363 0.6100 0.7806 -0.1363 0.6100 0.7806 
0.6081 0.0702 0.7907 0.6081 0.0702 0.7907 
-0.5038 0.4946 0.7081 -0.5038 0.4946 0.7081 
0.6183 -0.5166 0.5923 0.6183 -0.5166 0.5923 
0.8318 0.5307 -0.1625 0.8318 0.5307 -0.1625 
0.0808 -0.3484 0.9339 0.0808 -0.3484 0.9339 
0.5568 0.1576 0.8155 0.5568 0.1576 0.8155 
-0.9886 -0.1490 -0.0203 -0.9886 -0.1490 -0.0203 
-0.6303 0.4842 -0.6069 -0.6303 0.4842 -0.6069 
-0.8575 0.4709 0.2074 -0.8575 0.4709 0.2074 
0.1182 -0.9831 -0.1401 0.1182 -0.9831 -0.1401 
0.0522 0.6578 0.7514 0.0522 0.6578 0.7514 
0.0086 -0.8005 0.5993 0.0086 -0.8005 0.5993 
-0.0022 0.7259 0.6878 -0.0022 0.7259 0.6878 
-0.1861 0.8529 0.4879 -0.1861 0.8529 0.4879 
0.6692 -0.1018 -0.7361 0.6692 -0.1018 -0.7361 
0.2248 -0.7987 0.5582 0.2248 -0.7987 0.5582 
-0.1448 -0.5153 -0.8447 -0.1448 -0.5153 -0.8447 
0.6584 -0.2001 0.7256 0.6584 -0.2001 0.7256 
-0.9455 0.2265 0.2338 -0.9455 0.2265 0.2338 
0.2319 -0.8632 0.4484 0.2319 -0.8632 0.4484 
-0.9069 0.3825 0.1768 -0.9069 0.3825 0.1768 
-0.8272 -0.4942 0.2674 -0.8272 -0.4942 0.2674 
0.7908 0.4879 0.3695 0.7908 0.4879 0.3695 
0.5964 -0.7857 0.1645 0.5964 -0.7857 0.1645 
0.0650 0.6768 -0.7333 0.0650 0.6768 -0.7333 
0.5638 0.0527 -0.8243 0.5638 0.0527 -0.8243 
-0.2088 0.9775 0.0309 -0.2088 0.9775 0.0309 
0.1015 0.7101 0.6967 0.1015 0.7101 0.6967 
0.0769 0.9970 -0.0090 0.0769 0.9970 -0.0090 
-0.9071 0.0204 0.4204 -0.9071 0.0204 0.4204 
0.9153 0.0975 -0.3908 0.9153 0.0975 -0.3908 
-0.7403 0.3420 0.5788 -0.7403 0.3420 0.5788 
-0.8484 -0.2629 -0.4595 -0.8484 -0.2629 -0.4595 
0.5391 -0.7922 -0.2858 0.5391 -0.7922 -0.2858 
-0.5613 0.6087 -0.5608 -0.5613 0.6087 -0.5608 
-0.4151 -0.2810 0.8653 -0.4151 -0.2810 0.8653 
0.1646 0.7093 0.6855 0.1646 0.7093 0.6855 
-0.8752 -0.3116 0.3702 -0.8752 -0.3116 0.3702 
0.7627 0.6279 0.1548 0.7627 0.6279 0.1548 
-0.0611 -0.7602 -0.6468 -0.0611 -0.7602 -0.6468 
-0.7017 0.6648 0.2562 -0.7017 0.6648 0.2562 
-0.0314 -0.5793 -0.8145 -0.0314 -0.5793 -0.8145 
-0.9399 -0.3282 0.0939 -0.9399 -0.3282 0.0939 
-0.3471 -0.8424 0.4122 -0.3471 -0.8424 0.4122 
0.8139 -0.4711 -0.3400 0.8139 -0.4711 -0.3400 
-0.7865 0.3640 0.4989 -0.7865 0.3640 0.4989 
0.8277 -0.5004 0.2541 0.8277 -0.5004 0.2541 
0.2588 -0.2512 0.9327 0.2588 -0.2512 0.9327 
-0.4658 -0.3703 0.8037 -0.4658 -0.3703 0.8037 
0.6361 0.4893 0.5967 0.6361 0.4893 0.5967 
-0.7159 0.6171 0.3266 -0.7159 0.6171 0.3266 
0.2619 -0.1561 0.9524 0.2619 -0.1561 0.9524 
0.8904 -0.0777 -0.4484 0.8904 -0.0777 -0.4484 
-0.4187 0.8728 -0.2507 -0.4187 0.8728 -0.2507 
-0.8244 -0.0010 0.5661 -0.8244 -0.0010 0.5661 
-0.5663 0.3974 0.7221 -0.5663 0.3974 0.7221 
-0.5137 -0.3607 0.7785 -0.5137 -0.3607 0.7785 
0.5707 0.6922 -0.4417 0.5707 0.6922 -0.4417 
0.8474 -0.5233 0.0896 0.8474 -0.5233 0.0896 
0.4742 -0.7903 -0.3881 0.4742 -0.7903 -0.3881 
0.1632 -0.8054 -0.5698 0.1632 -0.8054 -0.5698 
-0.4876 0.7467 0.4525 -0.4876 0.7467 0.4525 
-0.5031 0.3136 -0.8053 -0.5031 0.3136 -0.8053 
0.1941 0.7129 0.6739 0.1941 0.7129 0.6739 
-0.7115 -0.7000 -0.0614 -0.7115 -0.7000 -0.0614 
0.5879 0.0635 0.8064 0.5879 0.0635 0.8064 
-0.3352 0.8332 -0.4397 -0.3352 0.8332 -0.4397 
-0.7292 0.5178 -0.4473 -0.7292 0.5178 -0.4473 
-0.7200 0.4488 0.5294 -0.7200 0.4488 0.5294 
0.7596 -0.4247 0.4926 0.7596 -0.4247 0.4926 
-0.3962 0.5455 0.7385 -0.3962 0.5455 0.7385 
0.0705 -0.8123 0.5789 0.0705 -0.8123 0.5789 
-0.9010 -0.2754 -0.3352 -0.9010 -0.2754 -0.3352 
-0.2305 -0.9433 -0.2387 -0.2305 -0.9433 -0.2387 
-0.3428 -0.9295 -0.1361 -0.3428 -0.9295 -0.1361 
0.4324 0.6119 0.6623 0.4324 0.6119 0.6623 
0.6208 -0.4134 0.6661 0.6208 -0.4134 0.6661 
-0.9968 -0.0144 0.0783 -0.9968 -0.0144 0.0783 
-0.1476 0.6800 -0.7182 -0.1476 0.6800 -0.7182 
-0.8420 0.4943 -0.2162 -0.8420 0.4943 -0.2162 
0.4578 -0.7457 -0.4841 0.4578 -0.7457 -0.4841 
0.7736 0.2709 -0.5729 0.7736 0.2709 -0.5729 
-0.0128 0.7765 0.6300 -0.0128 0.7765 0.6300 
0.6781 -0.5280 0.5113 0.6781 -0.5280 0.5113 
-0.4890 0.1006 0.8665 -0.4890 0.1006 0.8665 
0.5168 -0.3349 0.7879 0.5168 -0.3349 0.7879 
0.3652 -0.6588 -0.6577 0.3652 -0.6588 -0.6577 
0.0148 -0.8694 0.4939 0.0148 -0.8694 0.4939 
-0.9357 0.3520 0.0232 -0.9357 0.3520 0.0232 
-0.7980 0.4076 -0.4440 -0.7980 0.4076 -0.4440 
0.0919 -0.2440 -0.9654 0.0919 -0.2440 -0.9654 
0.3853 -0.5428 0.7463 0.3853 -0.5428 0.7463 
-0.8343 0.3431 0.4315 -0.8343 0.3431 0.4315 
0.5682 0.1461 0.8098 0.5682 0.1461 0.8098 
0.2575 0.9632 -0.0766 0.2575 0.9632 -0.0766 
-0.0366 0.2207 0.9747 -0.0366 0.2207 0.9747 
-0.3209 -0.4108 0.8534 -0.3209 -0.4108 0.8534 
-0.0869 0.7115 -0.6973 -0.0869 0.7115 -0.6973 
-0.6125 0.4820 0.6266 -0.6125 0.4820 0.6266 
0.2452 0.9517 0.1848 0.2452 0.9517 0.1848 
0.6776 -0.0549 -0.7334 0.6776 -0.0549 -0.7334 
-0.5008 -0.6643 -0.5549 -0.5008 -0.6643 -0.5549 
-0.5279 -0.4465 0.7225 -0.5279 -0.4465 0.7225 
0.6750 -0.7378 -0.0006 0.6750 -0.7378 -0.0006 
0.8713 0.3312 -0.3622 0.8713 0.3312 -0.3622 
-0.2983 -0.6321 0.7151 -0.2983 -0.6321 0.7151 
-0.7549 -0.1244 -0.6440 -0.7549 -0.1244 -0.6440 
-0.5136 0.5575 0.6522 -0.5136 0.5575 0.6522 
-0.2520 -0.8319 0.4944 -0.2520 -0.8319 0.4944 
-0.6641 0.3549 0.6580 -0.6641 0.3549 0.6580 
0.7580 0.1021 -0.6442 0.7580 0.1021 -0.6442 
0.7684 0.6056 -0.2068 0.7684 0.6056 -0.2068 
-0.5805 -0.7869 0.2096 -0.5805 -0.7869 0.2096 
-0.6973 0.6651 0.2672 -0.6973 0.6651 0.2672 
0.1599 0.8013 -0.5765 0.1599 0.8013 -0.5765 
0.7042 -0.6977 -0.1315 0.7042 -0.6977 -0.1315 
0.6050 -0.4555 0.6531 0.6050 -0.4555 0.6531 
-0.8334 -0.2391 0.4983 -0.8334 -0.2391 0.4983 
-0.7983 0.3665 0.4780 -0.7983 0.3665 0.4780 
0.5362 0.8319 -0.1427 0.5362 0.8319 -0.1427 
0.0860 0.5682 0.8184 0.0860 0.5682 0.8184 
0.5907 0.4990 0.6341 0.5907 0.4990 0.6341 
-0.6185 0.6158 0.4882 -0.6185 0.6158 0.4882 
0.5315 0.7584 0.3772 0.5315 0.7584 0.3772 
-0.6885 -0.6178 -0.3799 -0.6885 -0.6178 -0.3799 
0.8644 -0.4465 0.2311 0.8644 -0.4465 0.2311 
-0.5976 -0.5481 0.5851 -0.5976 -0.5481 0.5851 
-0.7450 -0.4147 -0.5225 -0.7450 -0.4147 -0.5225 
0.5671 -0.4139 0.7121 0.5671 -0.4139 0.7121 
0.1869 -0.7329 0.6542 0.1869 -0.7329 0.6542 
-0.8942 0.2320 0.3829 -0.8942 0.2320 0.3829 
0.9586 -0.2366 -0.1583 0.9586 -0.2366 -0.1583 
0.7501 0.0813 -0.6563 0.7501 0.0813 -0.6563 
0.1103 -0.4938 -0.8626 0.1103 -0.4938 -0.8626 
-0.6578 0.6773 0.3296 -0.6578 0.6773 0.3296 
0.4002 0.0393 0.9156 0.4002 0.0393 0.9156 
-0.5130 0.4815 -0.7106 -0.5130 0.4815 -0.7106 
-0.8466 0.5217 -0.1052 -0.8466 0.5217 -0.1052 
-0.6960 0.2147 0.6852 -0.6960 0.2147 0.6852 
-0.5894 -0.6015 0.5393 -0.5894 -0.6015 0.5393 
-0.8160 -0.5547 -0.1625 -0.8160 -0.5547 -0.1625 
0.5323 -0.6125 0.5843 0.5323 -0.6125 0.5843 
-0.5382 0.7852 -0.3062 -0.5382 0.7852 -0.3062 
-0.3406 0.0146 0.9401 -0.3406 0.0146 0.9401 
0.4201 0.8365 -0.3518 0.4201 0.8365 -0.3518 
-0.5086 -0.0782 0.8574 -0.5086 -0.0782 0.8574 
-0.6755 0.6638 0.3210 -0.6755 0.6638 0.3210 
-0.1305 0.9254 -0.3559 -0.1305 0.9254 -0.3559 
0.5737 -0.5338 0.6212 0.5737 -0.5338 0.6212 
0.2618 -0.4244 -0.8668 0.2618 -0.4244 -0.8668 
-0.3789 -0.5227 -0.7637 -0.3789 -0.5227 -0.7637 
0.6635 -0.7479 0.0166 0.6635 -0.7479 0.0166 
0.5308 -0.8339 -0.1510 0.5308 -0.8339 -0.1510 
0.6224 0.3956 0.6754 0.6224 0.3956 0.6754 
0.2650 -0.4126 0.8715 0.2650 -0.4126 0.8715 
0.7920 0.2571 -0.5537 0.7920 0.2571 -0.5537 
0.5475 0.5729 0.6099 0.5475 0.5729 0.6099 
0.0011 -0.4863 0.8738 0.0011 -0.4863 0.8738 
0.6167 -0.4184 0.6668 0.6167 -0.4184 0.6668 
0.5394 0.6586 -0.5247 0.5394 0.6586 -0.5247 
0.8667 -0.4703 0.1662 0.8667 -0.4703 0.1662 
-0.5125 -0.7556 0.4079 -0.5125 -0.7556 0.4079 
0.4216 0.3762 -0.8251 0.4216 0.3762 -0.8251 
-0.6509 0.3119 0.6921 -0.6509 0.3119 0.6921 
-0.6253 -0.5581 -0.5454 -0.6253 -0.5581 -0.5454 
0.6191 -0.5268 0.5824 0.6191 -0.5268 0.5824 
-0.6420 -0.6616 0.3875 -0.6420 -0.6616 0.3875 
0.7807 0.0820 -0.6195 0.7807 0.0820 -0.6195 
0.8519 -0.2685 -0.4497 0.8519 -0.2685 -0.4497 
0.3725 -0.6700 -0.6421 0.3725 -0.6700 -0.6421 
0.7021 -0.7120 0.0155 0.7021 -0.7120 0.0155 
-0.3181 -0.7600 0.5667 -0.3181 -0.7600 0.5667 
-0.6072 -0.7224 -0.3307 -0.6072 -0.7224 -0.3307 
-0.5150 -0.3487 0.7831 -0.5150 -0.3487 0.7831 
-0.8209 -0.0520 -0.5688 -0.8209 -0.0520 -0.5688 
-0.7768 -0.4123 -0.4759 -0.7768 -0.4123 -0.4759 
-0.9460 -0.1843 -0.2668 -0.9460 -0.1843 -0.2668 
0.6256 -0.1584 0.7639 0.6256 -0.1584 0.7639 
0.7925 -0.5592 -0.2434 0.7925 -0.5592 -0.2434 
-0.4471 0.8709 0.2039 -0.4471 0.8709 0.2039 
0.2293 0.6470 0.7272 0.2293 0.6470 0.7272 
-0.5983 -0.5239 -0.6063 -0.5983 -0.5239 -0.6063 
0.4075 -0.4893 -0.7711 0.4075 -0.4893 -0.7711 
0.9961 -0.0299 -0.0834 0.9961 -0.0299 -0.0834 
0.7241 0.0017 0.6897 0.7241 0.0017 0.6897 
-0.7739 0.4638 -0.4312 -0.7739 0.4638 -0.4312 
-0.1317 0.8382 0.5293 -0.1317 0.8382 0.5293 
0.6172 0.3397 -0.7097 0.6172 0.3397 -0.7097 
0.7142 0.4066 -0.5697 0.7142 0.4066 -0.5697 
-0.5113 0.6696 -0.5387 -0.5113 0.6696 -0.5387 
0.5631 0.1505 0.8126 0.5631 0.1505 0.8126 
-0.1980 0.2860 0.9375 -0.1980 0.2860 0.9375 
-0.0582 -0.5475 -0.8348 -0.0582 -0.5475 -0.8348 
0.4556 -0.6460 0.6124 0.4556 -0.6460 0.6124 
-0.7086 -0.4454 -0.5473 -0.7086 -0.4454 -0.5473 
-0.7279 -0.2119 0.6522 -0.7279 -0.2119 0.6522 
-0.4242 0.7074 0.5653 -0.4242 0.7074 0.5653 
-0.9485 0.2878 -0.1323 -0.9485 0.2878 -0.1323 
-0.6557 -0.1483 -0.7403 -0.6557 -0.1483 -0.7403 
-0.1887 0.1023 -0.9767 -0.1887 0.1023 -0.9767 
0.0879 -0.8856 0.4560 0.0879 -0.8856 0.4560 
-0.5331 0.4640 -0.7075 -0.5331 0.4640 -0.7075 
-0.5815 -0.8009 0.1431 -0.5815 -0.8009 0.1431 
-0.1249 0.6044 0.7868 -0.1249 0.6044 0.7868 
-0.5609 0.5797 -0.5910 -0.5609 0.5797 -0.5910 
-0.3958 0.9167 -0.0551 -0.3958 0.9167 -0.0551 
-0.5860 -0.6436 -0.4924 -0.5860 -0.6436 -0.4924 
0.7005 -0.3668 0.6122 0.7005 -0.3668 0.6122 
-0.3457 -0.6002 -0.7213 -0.3457 -0.6002 -0.7213 
0.0319 0.5964 0.8021 0.0319 0.5964 0.8021 
0.2225 -0.4407 -0.8697 0.2225 -0.4407 -0.8697 
-0.6447 0.3158 0.6962 -0.6447 0.3158 0.6962 
-0.0348 0.6480 0.7608 -0.0348 0.6480 0.7608 
-0.8472 -0.3429 0.4057 -0.8472 -0.3429 0.4057 
0.9651 -0.1225 0.2313 0.9651 -0.1225 0.2313 
-0.8695 0.4938 0.0111 -0.8695 0.4938 0.0111 
-0.0061 -0.9042 0.4270 -0.0061 -0.9042 0.4270 
0.3873 -0.6643 0.6393 0.3873 -0.6643 0.6393 
0.7917 -0.2136 -0.5724 0.7917 -0.2136 -0.5724 
-0.5960 0.6289 -0.4993 -0.5960 0.6289 -0.4993 
0.9898 0.1051 -0.0957 0.9898 0.1051 -0.0957 
-0.6296 0.4293 -0.6475 -0.6296 0.4293 -0.6475 
0.6073 -0.3754 0.7002 0.6073 -0.3754 0.7002 
0.7516 -0.4502 -0.4820 0.7516 -0.4502 -0.4820 
0.1580 -0.7813 0.6039 0.1580 -0.7813 0.6039 
-0.7797 -0.6262 0.0017 -0.7797 -0.6262 0.0017 
0.5926 0.8025 0.0686 0.5926 0.8025 0.0686 
-0.9570 0.0494 0.2858 -0.9570 0.0494 0.2858 
-0.2475 -0.4901 0.8358 -0.2475 -0.4901 0.8358 
0.3896 -0.4053 0.8270 0.3896 -0.4053 0.8270 
0.8046 -0.5920 -0.0466 0.8046 -0.5920 -0.0466 
-0.5773 -0.4157 -0.7028 -0.5773 -0.4157 -0.7028 
-0.4198 -0.9076 0.0064 -0.4198 -0.9076 0.0064 
-0.2834 -0.7714 0.5698 -0.2834 -0.7714 0.5698 
0.2464 0.2922 -0.9241 0.2464 0.2922 -0.9241 
-0.3136 0.7171 -0.6224 -0.3136 0.7171 -0.6224 
0.6289 -0.0355 0.7767 0.6289 -0.0355 0.7767 
-0.3016 0.9461 -0.1183 -0.3016 0.9461 -0.1183 
0.7898 -0.5138 0.3350 0.7898 -0.5138 0.3350 
0.5214 0.5826 0.6235 0.5214 0.5826 0.6235 
0.6280 0.5383 -0.5620 0.6280 0.5383 -0.5620 
-0.4174 -0.8980 0.1393 -0.4174 -0.8980 0.1393 
0.1543 -0.1317 0.9792 0.1543 -0.1317 0.9792 
-0.6508 0.4493 0.6121 -0.6508 0.4493 0.6121 
0.9631 -0.1599 0.2166 0.9631 -0.1599 0.2166 
0.7366 0.6388 -0.2223 0.7366 0.6388 -0.2223 
-0.7191 0.2830 0.6347 -0.7191 0.2830 0.6347 
-0.6793 -0.6452 0.3496 -0.6793 -0.6452 0.3496 
-0.0330 0.6971 0.7163 -0.0330 0.6971 0.7163 
-0.5406 0.5476 0.6387 -0.5406 0.5476 0.6387 
-0.8368 0.3730 0.4008 -0.8368 0.3730 0.4008 
-0.3003 0.8404 0.4511 -0.3003 0.8404 0.4511 
0.8070 0.0424 -0.5890 0.8070 0.0424 -0.5890 
0.4138 0.1373 -0.9000 0.4138 0.1373 -0.9000 
0.8543 -0.4604 -0.2412 0.8543 -0.4604 -0.2412 
-0.6485 -0.5265 -0.5497 -0.6485 -0.5265 -0.5497 
0.2456 -0.3187 0.9155 0.2456 -0.3187 0.9155 
-0.0218 -0.2531 0.9672 -0.0218 -0.2531 0.9672 
-0.4261 0.5649 0.7066 -0.4261 0.5649 0.7066 
-0.4523 -0.7675 0.4543 -0.4523 -0.7675 0.4543 
-0.7112 -0.6995 -0.0702 -0.7112 -0.6995 -0.0702 
0.9663 -0.1391 -0.2168 0.9663 -0.1391 -0.2168 
0.1119 -0.3018 0.9468 0.1119 -0.3018 0.9468 
0.5267 -0.8483 0.0541 0.5267 -0.8483 0.0541 
0.4883 0.3828 0.7842 0.4883 0.3828 0.7842 
-0.4469 0.7581 -0.4749 -0.4469 0.7581 -0.4749 
0.0402 0.6057 0.7947 0.0402 0.6057 0.7947 
-0.1026 -0.7079 0.6988 -0.1026 -0.7079 0.6988 
-0.2272 -0.5750 0.7860 -0.2272 -0.5750 0.7860 
-0.4276 -0.0333 0.9034 -0.4276 -0.0333 0.9034 
-0.6217 0.1879 0.7604 -0.6217 0.1879 0.7604 
0.6024 -0.5096 -0.6144 0.6024 -0.5096 -0.6144 
-0.6599 0.6638 0.3518 -0.6599 0.6638 0.3518 
0.7834 0.3552 0.5100 0.7834 0.3552 0.5100 
0.4547 0.0957 0.8855 0.4547 0.0957 0.8855 
-0.1155 0.9908 -0.0709 -0.1155 0.9908 -0.0709 
0.3484 -0.4491 -0.8228 0.3484 -0.4491 -0.8228 
-0.4533 0.3582 -0.8162 -0.4533 0.3582 -0.8162 
-0.5513 -0.7908 -0.2660 -0.5513 -0.7908 -0.2660 
-0.8035 -0.0845 0.5892 -0.8035 -0.0845 0.5892 
0.9531 0.2788 -0.1182 0.9531 0.2788 -0.1182 
0.4826 -0.5490 0.6824 0.4826 -0.5490 0.6824 
-0.6445 -0.4678 0.6048 -0.6445 -0.4678 0.6048 
0.8290 -0.5478 0.1125 0.8290 -0.5478 0.1125 
0.3874 0.4689 -0.7938 0.3874 0.4689 -0.7938 
-0.5152 -0.5677 0.6421 -0.5152 -0.5677 0.6421 
0.3606 0.6433 -0.6754 0.3606 0.6433 -0.6754 
0.5891 -0.6404 0.4929 0.5891 -0.6404 0.4929 
0.7307 -0.1713 0.6609 0.7307 -0.1713 0.6609 
-0.7625 -0.1838 -0.6203 -0.7625 -0.1838 -0.6203 
-0.6882 -0.3903 0.6115 -0.6882 -0.3903 0.6115 
0.0609 -0.7486 -0.6602 0.0609 -0.7486 -0.6602 
-0.2428 -0.8549 -0.4585 -0.2428 -0.8549 -0.4585 
-0.5149 -0.8484 0.1229 -0.5149 -0.8484 0.1229 
0.6581 0.6378 -0.4002 0.6581 0.6378 -0.4002 
0.5973 -0.7960 0.0977 0.5973 -0.7960 0.0977 
0.4740 0.8792 -0.0487 0.4740 0.8792 -0.0487 
0.7252 0.2029 0.6579 0.7252 0.2029 0.6579 
-0.1597 -0.1940 -0.9679 -0.1597 -0.1940 -0.9679 
-0.8472 0.5199 0.1095 -0.8472 0.5199 0.1095 
0.1071 0.6075 0.7871 0.1071 0.6075 0.7871 
-0.2156 -0.5862 0.7810 -0.2156 -0.5862 0.7810 
-0.0168 0.3328 0.9429 -0.0168 0.3328 0.9429 
0.4600 0.5944 -0.6596 0.4600 0.5944 -0.6596 
-0.3041 0.4870 0.8187 -0.3041 0.4870 0.8187 
0.4801 0.1017 0.8713 0.4801 0.1017 0.8713 
-0.5790 -0.7385 0.3454 -0.5790 -0.7385 0.3454 
0.4419 0.7127 -0.5448 0.4419 0.7127 -0.5448 
-0.3347 -0.7776 0.5322 -0.3347 -0.7776 0.5322 
0.0862 0.3492 -0.9331 0.0862 0.3492 -0.9331 
-0.5877 -0.4890 0.6446 -0.5877 -0.4890 0.6446 
0.8117 0.0966 -0.5760 0.8117 0.0966 -0.5760 
0.2430 -0.7169 0.6535 0.2430 -0.7169 0.6535 
0.2848 0.6918 0.6635 0.2848 0.6918 0.6635 
0.5696 -0.8175 0.0851 0.5696 -0.8175 0.0851 
0.0342 0.7052 -0.7082 0.0342 0.7052 -0.7082 
-0.2755 -0.7684 -0.5776 -0.2755 -0.7684 -0.5776 
-0.6489 0.5938 -0.4758 -0.6489 0.5938 -0.4758 
-0.8774 -0.4762 -0.0580 -0.8774 -0.4762 -0.0580 
0.5229 0.5610 -0.6418 0.5229 0.5610 -0.6418 
-0.5915 0.6587 -0.4649 -0.5915 0.6587 -0.4649 
-0.7355 0.5100 0.4460 -0.7355 0.5100 0.4460 
-0.4436 -0.2193 0.8690 -0.4436 -0.2193 0.8690 
-0.4330 -0.8685 0.2414 -0.4330 -0.8685 0.2414 
-0.6578 0.4616 0.5952 -0.6578 0.4616 0.5952 
0.3983 -0.5684 0.7199 0.3983 -0.5684 0.7199 
0.4124 0.3253 0.8510 0.4124 0.3253 0.8510 
0.7434 0.3151 0.5900 0.7434 0.3151 0.5900 
-0.5769 0.7008 -0.4197 -0.5769 0.7008 -0.4197 
0.2478 0.5780 -0.7775 0.2478 0.5780 -0.7775 
0.3021 0.6295 -0.7159 0.3021 0.6295 -0.7159 
0.5559 -0.6995 0.4491 0.5559 -0.6995 0.4491 
0.4146 -0.4163 -0.8092 0.4146 -0.4163 -0.8092 
-0.3850 0.6116 -0.6911 -0.3850 0.6116 -0.6911 
-0.6952 0.4025 -0.5956 -0.6952 0.4025 -0.5956 
0.9287 -0.1850 -0.3214 0.9287 -0.1850 -0.3214 
0.2250 -0.5987 -0.7687 0.2250 -0.5987 -0.7687 
0.1925 -0.8066 0.5588 0.1925 -0.8066 0.5588 
-0.0939 -0.7613 0.6415 -0.0939 -0.7613 0.6415 
0.4685 0.8820 -0.0503 0.4685 0.8820 -0.0503 
0.9078 0.2502 -0.3365 0.9078 0.2502 -0.3365 
0.9553 -0.0511 -0.2912 0.9553 -0.0511 -0.2912 
0.3650 -0.7767 0.5134 0.3650 -0.7767 0.5134 
0.9811 0.0238 -0.1921 0.9811 0.0238 -0.1921 
-0.6277 0.0745 -0.7748 -0.6277 0.0745 -0.7748 
-0.6995 -0.4748 0.5342 -0.6995 -0.4748 0.5342 
0.3649 -0.8095 0.4600 0.3649 -0.8095 0.4600 
0.5327 0.2245 0.8160 0.5327 0.2245 0.8160 
0.0338 -0.7905 -0.6115 0.0338 -0.7905 -0.6115 
-0.4909 0.4949 -0.7170 -0.4909 0.4949 -0.7170 
0.6763 0.4328 0.5960 0.6763 0.4328 0.5960 
-0.7735 -0.0238 -0.6334 -0.7735 -0.0238 -0.6334 
-0.1126 -0.7966 -0.5940 -0.1126 -0.7966 -0.5940 
-0.5163 -0.7142 0.4727 -0.5163 -0.7142 0.4727 
0.4479 -0.5193 -0.7278 0.4479 -0.5193 -0.7278 
0.7684 0.4616 0.4432 0.7684 0.4616 0.4432 
-0.2412 -0.3924 0.8876 -0.2412 -0.3924 0.8876 
-0.6066 -0.6971 -0.3822 -0.6066 -0.6971 -0.3822 
-0.8739 0.4326 -0.2218 -0.8739 0.4326 -0.2218 
-0.3787 0.7361 -0.5610 -0.3787 0.7361 -0.5610 
-0.3706 0.2374 0.8979 -0.3706 0.2374 0.8979 
-0.8835 0.2820 -0.3740 -0.8835 0.2820 -0.3740 
-0.6289 -0.7757 -0.0537 -0.6289 -0.7757 -0.0537 
-0.3239 -0.8810 0.3448 -0.3239 -0.8810 0.3448 
-0.4448 0.6439 0.6226 -0.4448 0.6439 0.6226 
-0.0364 0.9099 0.4132 -0.0364 0.9099 0.4132 
-0.5036 -0.4571 -0.7332 -0.5036 -0.4571 -0.7332 
0.7748 -0.1640 -0.6105 0.7748 -0.1640 -0.6105 
-0.6067 0.0750 0.7914 -0.6067 0.0750 0.7914 
0.2363 0.7378 0.6323 0.2363 0.7378 0.6323 
0.6810 -0.6697 -0.2961 0.6810 -0.6697 -0.2961 
0.2114 -0.4700 -0.8570 0.2114 -0.4700 -0.8570 
0.7336 -0.1519 -0.6624 0.7336 -0.1519 -0.6624 
-0.2892 0.9395 -0.1836 -0.2892 0.9395 -0.1836 
0.6994 -0.6890 -0.1900 0.6994 -0.6890 -0.1900 
0.7312 0.0547 -0.6800 0.7312 0.0547 -0.6800 
0.0448 0.7853 -0.6175 0.0448 0.7853 -0.6175 
0.1385 0.3183 0.9378 0.1385 0.3183 0.9378 
0.5525 0.6813 -0.4801 0.5525 0.6813 -0.4801 
0.3030 -0.2529 -0.9188 0.3030 -0.2529 -0.9188 
-0.2588 -0.8386 -0.4794 -0.2588 -0.8386 -0.4794 
0.6457 0.7488 0.1499 0.6457 0.7488 0.1499 
0.4806 0.3962 0.7824 0.4806 0.3962 0.7824 
0.6471 -0.5724 0.5037 0.6471 -0.5724 0.5037 
-0.2778 -0.7114 0.6456 -0.2778 -0.7114 0.6456 
0.3946 0.8970 -0.1991 0.3946 0.8970 -0.1991 
0.6558 0.0132 -0.7548 0.6558 0.0132 -0.7548 
-0.5323 -0.7860 0.3144 -0.5323 -0.7860 0.3144 
0.8471 0.5290 -0.0510 0.8471 0.5290 -0.0510 
-0.5544 -0.2085 0.8057 -0.5544 -0.2085 0.8057 
-0.2339 0.5715 -0.7866 -0.2339 0.5715 -0.7866 
0.4491 0.1954 0.8719 0.4491 0.1954 0.8719 
-0.7965 -0.4060 0.4480 -0.7965 -0.4060 0.4480 
-0.6062 -0.4875 0.6284 -0.6062 -0.4875 0.6284 
-0.7423 0.2329 0.6282 -0.7423 0.2329 0.6282 
0.7327 -0.2507 0.6327 0.7327 -0.2507 0.6327 
-0.5052 -0.7911 -0.3447 -0.5052 -0.7911 -0.3447 
-0.5807 -0.6298 -0.5159 -0.5807 -0.6298 -0.5159 
-0.7737 -0.2825 -0.5671 -0.7737 -0.2825 -0.5671 
0.4054 0.6201 0.6717 0.4054 0.6201 0.6717 
-0.1404 0.9742 -0.1769 -0.1404 0.9742 -0.1769 
0.0065 0.3216 -0.9469 0.0065 0.3216 -0.9469 
-0.2293 0.9398 -0.2534 -0.2293 0.9398 -0.2534 
-0.7895 -0.5398 0.2922 -0.7895 -0.5398 0.2922 
0.6744 -0.6001 -0.4303 0.6744 -0.6001 -0.4303 
0.3981 -0.8217 0.4078 0.3981 -0.8217 0.4078 
0.0777 -0.0653 0.9948 0.0777 -0.0653 0.9948 
0.6712 0.6394 -0.3751 0.6712 0.6394 -0.3751 
-0.3457 0.9069 0.2407 -0.3457 0.9069 0.2407 
0.0674 0.1233 -0.9901 0.0674 0.1233 -0.9901 
-0.5580 0.6905 -0.4603 -0.5580 0.6905 -0.4603 
0.1037 -0.0810 0.9913 0.1037 -0.0810 0.9913 
0.0854 0.7784 0.6219 0.0854 0.7784 0.6219 
0.5701 0.5271 0.6302 0.5701 0.5271 0.6302 
0.2726 0.5120 -0.8146 0.2726 0.5120 -0.8146 
0.8984 -0.3313 -0.2881 0.8984 -0.3313 -0.2881 
0.1523 0.7312 0.6650 0.1523 0.7312 0.6650 
-0.1262 0.7710 0.6242 -0.1262 0.7710 0.6242 
0.4567 -0.7966 0.3960 0.4567 -0.7966 0.3960 
-0.4457 0.3645 -0.8176 -0.4457 0.3645 -0.8176 
0.1933 0.6159 -0.7637 0.1933 0.6159 -0.7637 
0.6856 -0.5752 0.4463 0.6856 -0.5752 0.4463 
0.3544 0.9289 0.1074 0.3544 0.9289 0.1074 
-0.3264 0.9056 -0.2709 -0.3264 0.9056 -0.2709 
-0.2740 -0.3676 -0.8887 -0.2740 -0.3676 -0.8887 
0.3250 -0.9343 -0.1464 0.3250 -0.9343 -0.1464 
0.7786 0.5635 -0.2760 0.7786 0.5635 -0.2760 
0.5626 -0.4081 -0.7190 0.5626 -0.4081 -0.7190 
0.0445 -0.8647 -0.5003 0.0445 -0.8647 -0.5003 
-0.6064 -0.2904 0.7403 -0.6064 -0.2904 0.7403 
-0.0933 0.9806 0.1723 -0.0933 0.9806 0.1723 
0.3597 0.4697 0.8062 0.3597 0.4697 0.8062 
-0.5689 -0.5750 0.5879 -0.5689 -0.5750 0.5879 
0.8205 0.5402 -0.1871 0.8205 0.5402 -0.1871 
-0.4093 -0.7552 0.5120 -0.4093 -0.7552 0.5120 
-0.1692 0.3849 -0.9073 -0.1692 0.3849 -0.9073 
0.7024 0.3129 0.6393 0.7024 0.3129 0.6393 
-0.6072 -0.0770 -0.7908 -0.6072 -0.0770 -0.7908 
-0.2737 0.7681 -0.5789 -0.2737 0.7681 -0.5789 
0.1521 -0.9884 0.0002 0.1521 -0.9884 0.0002 
-0.5530 0.7906 -0.2628 -0.5530 0.7906 -0.2628 
0.7633 -0.2846 -0.5800 0.7633 -0.2846 -0.5800 
0.8907 0.4511 -0.0559 0.8907 0.4511 -0.0559 
-0.0352 0.0981 -0.9946 -0.0352 0.0981 -0.9946 
0.7501 0.5961 -0.2864 0.7501 0.5961 -0.2864 
0.2974 -0.4935 -0.8173 0.2974 -0.4935 -0.8173 
0.3468 -0.8231 0.4496 0.3468 -0.8231 0.4496 
0.0118 -0.5175 -0.8556 0.0118 -0.5175 -0.8556 
0.3277 0.3539 -0.8760 0.3277 0.3539 -0.8760 
0.5976 -0.7526 -0.2766 0.5976 -0.7526 -0.2766 
-0.4749 0.1148 -0.8726 -0.4749 0.1148 -0.8726 
0.8548 0.0775 -0.5131 0.8548 0.0775 -0.5131 
0.5825 -0.2767 -0.7643 0.5825 -0.2767 -0.7643 
-0.4557 0.8714 0.1815 -0.4557 0.8714 0.1815 
0.2037 0.8836 -0.4216 0.2037 0.8836 -0.4216 
0.9260 -0.2511 0.2819 0.9260 -0.2511 0.2819 
0.6769 -0.6576 0.3307 0.6769 -0.6576 0.3307 
0.3376 0.1287 -0.9324 0.3376 0.1287 -0.9324 
0.7087 -0.6260 0.3254 0.7087 -0.6260 0.3254 
-0.6497 0.6041 0.4614 -0.6497 0.6041 0.4614 
-0.2921 -0.9059 -0.3067 -0.2921 -0.9059 -0.3067 
-0.0779 0.6904 0.7193 -0.0779 0.6904 0.7193 
0.6877 0.5140 -0.5127 0.6877 0.5140 -0.5127 
0.5317 -0.5936 -0.6041 0.5317 -0.5936 -0.6041 
-0.1704 0.3983 0.9013 -0.1704 0.3983 0.9013 
0.7363 0.0711 -0.6729 0.7363 0.0711 -0.6729 
-0.1854 -0.0632 -0.9806 -0.1854 -0.0632 -0.9806 
-0.5676 -0.6021 0.5616 -0.5676 -0.6021 0.5616 
-0.3930 -0.6522 -0.6482 -0.3930 -0.6522 -0.6482 
0.4869 -0.6280 0.6071 0.4869 -0.6280 0.6071 
0.5036 -0.1656 -0.8479 0.5036 -0.1656 -0.8479 
-0.5583 0.5452 -0.6254 -0.5583 0.5452 -0.6254 
-0.7854 0.3643 0.5004 -0.7854 0.3643 0.5004 
-0.4992 0.2125 0.8401 -0.4992 0.2125 0.8401 
-0.3216 -0.9458 0.0440 -0.3216 -0.9458 0.0440 
-0.5181 0.5486 -0.6562 -0.5181 0.5486 -0.6562 
-0.6634 -0.7310 0.1600 -0.6634 -0.7310 0.1600 
0.4596 0.0101 0.8881 0.4596 0.0101 0.8881 
-0.2639 0.6904 0.6736 -0.2639 0.6904 0.6736 
-0.2726 0.2818 0.9200 -0.2726 0.2818 0.9200 
-0.2682 -0.5344 -0.8016 -0.2682 -0.5344 -0.8016 
0.0909 -0.2604 -0.9612 0.0909 -0.2604 -0.9612 
0.3190 -0.3324 0.8875 0.3190 -0.3324 0.8875 
-0.4128 0.7213 -0.5562 -0.4128 0.7213 -0.5562 
-0.3879 -0.9068 -0.1651 -0.3879 -0.9068 -0.1651 
0.6123 -0.6682 -0.4226 0.6123 -0.6682 -0.4226 
0.9564 0.0060 0.2919 0.9564 0.0060 0.2919 
-0.1710 -0.7070 -0.6862 -0.1710 -0.7070 -0.6862 
-0.7833 0.0459 0.6200 -0.7833 0.0459 0.6200 
0.5352 0.8210 -0.1990 0.5352 0.8210 -0.1990 
0.1162 -0.6867 0.7176 0.1162 -0.6867 0.7176 
0.3013 0.6141 -0.7295 0.3013 0.6141 -0.7295 
0.9680 -0.0682 -0.2417 0.9680 -0.0682 -0.2417 
0.0210 0.7027 -0.7112 0.0210 0.7027 -0.7112 
0.6087 -0.5125 -0.6057 0.6087 -0.5125 -0.6057 
-0.3587 0.8510 -0.3837 -0.3587 0.8510 -0.3837 
0.1684 0.7742 0.6101 0.1684 0.7742 0.6101 
-0.5666 -0.4369 0.6986 -0.5666 -0.4369 0.6986 
-0.7556 -0.5487 -0.3577 -0.7556 -0.5487 -0.3577 
-0.7121 -0.6524 -0.2595 -0.7121 -0.6524 -0.2595 
0.0435 0.6605 0.7496 0.0435 0.6605 0.7496 
-0.8980 -0.3618 0.2502 -0.8980 -0.3618 0.2502 
-0.4368 -0.6082 -0.6628 -0.4368 -0.6082 -0.6628 
0.3172 0.2392 0.9177 0.3172 0.2392 0.9177 
0.5948 0.0048 -0.8038 0.5948 0.0048 -0.8038 
0.6326 0.4827 -0.6057 0.6326 0.4827 -0.6057 
-0.5539 -0.2106 0.8055 -0.5539 -0.2106 0.8055 
0.8634 0.1201 -0.4900 0.8634 0.1201 -0.4900 
0.6561 0.7261 0.2056 0.6561 0.7261 0.2056 
-0.4307 0.7981 0.4214 -0.4307 0.7981 0.4214 
0.8484 -0.0043 -0.5293 0.8484 -0.0043 -0.5293 
-0.4835 0.4343 0.7600 -0.4835 0.4343 0.7600 
0.5666 0.5670 0.5979 0.5666 0.5670 0.5979 
0.9905 0.1140 0.0767 0.9905 0.1140 0.0767 
0.6543 -0.2731 -0.7052 0.6543 -0.2731 -0.7052 
-0.6988 -0.4707 0.5386 -0.6988 -0.4707 0.5386 
-0.6892 -0.2856 -0.6658 -0.6892 -0.2856 -0.6658 
-0.7013 -0.3950 0.5935 -0.7013 -0.3950 0.5935 
-0.1874 -0.9169 0.3524 -0.1874 -0.9169 0.3524 
-0.9428 -0.2258 0.2452 -0.9428 -0.2258 0.2452 
0.4248 0.7147 -0.5557 0.4248 0.7147 -0.5557 
-0.6002 -0.4597 0.6546 -0.6002 -0.4597 0.6546 
-0.7839 -0.5300 0.3234 -0.7839 -0.5300 0.3234 
0.7243 -0.5556 -0.4082 0.7243 -0.5556 -0.4082 
-0.0289 -0.9871 0.1576 -0.0289 -0.9871 0.1576 
0.0585 -0.7858 0.6157 0.0585 -0.7858 0.6157 
-0.3432 -0.3791 -0.8594 -0.3432 -0.3791 -0.8594 
0.8540 0.3542 -0.3811 0.8540 0.3542 -0.3811 
-0.3292 0.9125 0.2428 -0.3292 0.9125 0.2428 
0.5612 0.5839 -0.5866 0.5612 0.5839 -0.5866 
0.1582 0.4824 0.8616 0.1582 0.4824 0.8616 
0.3672 -0.8548 -0.3668 0.3672 -0.8548 -0.3668 
0.0205 -0.9982 -0.0572 0.0205 -0.9982 -0.0572 
-0.5066 0.8347 0.2158 -0.5066 0.8347 0.2158 
-0.2461 -0.0910 0.9650 -0.2461 -0.0910 0.9650 
-0.6237 -0.6326 0.4591 -0.6237 -0.6326 0.4591 
0.6635 -0.3075 -0.6821 0.6635 -0.3075 -0.6821 
0.6657 0.6583 0.3514 0.6657 0.6583 0.3514 
-0.2950 -0.7430 0.6008 -0.2950 -0.7430 0.6008 
-0.8304 -0.4628 0.3102 -0.8304 -0.4628 0.3102 
-0.8115 0.5787 -0.0813 -0.8115 0.5787 -0.0813 
-0.9923 0.0882 -0.0867 -0.9923 0.0882 -0.0867 
-0.3665 -0.9304 0.0007 -0.3665 -0.9304 0.0007 
0.7670 -0.6414 -0.0185 0.7670 -0.6414 -0.0185 
-0.1464 0.3827 0.9122 -0.1464 0.3827 0.9122 
-0.5731 0.3312 0.7496 -0.5731 0.3312 0.7496 
0.9542 0.0006 -0.2993 0.9542 0.0006 -0.2993 
-0.7987 -0.1623 -0.5794 -0.7987 -0.1623 -0.5794 
0.7734 0.6281 0.0853 0.7734 0.6281 0.0853 
0.2340 0.7746 0.5875 0.2340 0.7746 0.5875 
-0.4407 0.8656 0.2376 -0.4407 0.8656 0.2376 
0.3942 0.7289 -0.5598 0.3942 0.7289 -0.5598 
-0.6247 -0.4779 -0.6176 -0.6247 -0.4779 -0.6176 
0.4239 -0.9013 -0.0888 0.4239 -0.9013 -0.0888 
-0.6627 -0.0150 -0.7487 -0.6627 -0.0150 -0.7487 
-0.6485 0.2475 0.7199 -0.6485 0.2475 0.7199 
-0.8935 0.2996 -0.3346 -0.8935 0.2996 -0.3346 
-0.0138 0.7147 0.6993 -0.0138 0.7147 0.6993 
0.6934 0.6077 0.3872 0.6934 0.6077 0.3872 
-0.7685 -0.6290 0.1178 -0.7685 -0.6290 0.1178 
-0.9326 0.3338 -0.1373 -0.9326 0.3338 -0.1373 
0.8084 -0.4280 -0.4041 0.8084 -0.4280 -0.4041 
0.8959 0.2087 0.3922 0.8959 0.2087 0.3922 
-0.8023 -0.4007 0.4425 -0.8023 -0.4007 0.4425 
0.1309 -0.0538 -0.9899 0.1309 -0.0538 -0.9899 
0.4478 0.3579 0.8194 0.4478 0.3579 0.8194 
0.1947 0.9760 -0.0972 0.1947 0.9760 -0.0972 
0.8209 -0.3913 -0.4160 0.8209 -0.3913 -0.4160 
0.3423 -0.6296 -0.6975 0.3423 -0.6296 -0.6975 
-0.5576 -0.5519 -0.6201 -0.5576 -0.5519 -0.6201 
0.6504 -0.0118 -0.7595 0.6504 -0.0118 -0.7595 
-0.4248 -0.8560 -0.2945 -0.4248 -0.8560 -0.2945 
0.3600 -0.6062 0.7092 0.3600 -0.6062 0.7092 
-0.2156 -0.8147 -0.5383 -0.2156 -0.8147 -0.5383 
-0.7357 0.4091 0.5398 -0.7357 0.4091 0.5398 
-0.6902 -0.5726 -0.4425 -0.6902 -0.5726 -0.4425 
-0.4650 0.7503 -0.4699 -0.4650 0.7503 -0.4699 
0.4481 0.8934 0.0313 0.4481 0.8934 0.0313 
0.9587 0.2313 0.1655 0.9587 0.2313 0.1655 
0.5857 -0.5901 0.5557 0.5857 -0.5901 0.5557 
-0.2986 0.9505 -0.0863 -0.2986 0.9505 -0.0863 
-0.3723 -0.7397 0.5605 -0.3723 -0.7397 0.5605 
0.4644 -0.7815 0.4167 0.4644 -0.7815 0.4167 
0.5410 -0.1388 0.8295 0.5410 -0.1388 0.8295 
-0.9561 0.1549 0.2487 -0.9561 0.1549 0.2487 
0.4266 0.6040 -0.6732 0.4266 0.6040 -0.6732 
-0.4313 -0.5351 0.7264 -0.4313 -0.5351 0.7264 
-0.1120 0.7164 0.6887 -0.1120 0.7164 0.6887 
0.8125 0.5770 -0.0838 0.8125 0.5770 -0.0838 
0.1224 0.9824 -0.1414 0.1224 0.9824 -0.1414 
0.0290 -0.9214 -0.3876 0.0290 -0.9214 -0.3876 
0.9469 0.1508 0.2840 0.9469 0.1508 0.2840 
0.5625 -0.5409 0.6253 0.5625 -0.5409 0.6253 
-0.1774 -0.6564 -0.7333 -0.1774 -0.6564 -0.7333 
-0.4518 -0.7922 0.4102 -0.4518 -0.7922 0.4102 
0.6530 0.7408 0.1574 0.6530 0.7408 0.1574 
0.7561 -0.4713 0.4541 0.7561 -0.4713 0.4541 
0.8908 0.3703 0.2631 0.8908 0.3703 0.2631 
0.8694 0.4524 -0.1987 0.8694 0.4524 -0.1987 
-0.5986 -0.6553 -0.4607 -0.5986 -0.6553 -0.4607 
0.6342 0.7491 -0.1913 0.6342 0.7491 -0.1913 
-0.6993 0.2145 -0.6819 -0.6993 0.2145 -0.6819 
0.5636 -0.7315 -0.3837 0.5636 -0.7315 -0.3837 
-0.6766 0.7304 0.0940 -0.6766 0.7304 0.0940 
-0.1645 -0.9068 0.3882 -0.1645 -0.9068 0.3882 
-0.6520 0.6906 0.3131 -0.6520 0.6906 0.3131 
0.2970 0.6480 0.7014 0.2970 0.6480 0.7014 
-0.1649 0.9401 0.2984 -0.1649 0.9401 0.2984 
-0.8377 0.0775 -0.5406 -0.8377 0.0775 -0.5406 
0.0445 0.8996 -0.4344 0.0445 0.8996 -0.4344 
0.5215 -0.2190 -0.8247 0.5215 -0.2190 -0.8247 
-0.7566 -0.2765 0.5926 -0.7566 -0.2765 0.5926 
-0.3376 -0.6220 -0.7065 -0.3376 -0.6220 -0.7065 
0.5576 -0.4264 0.7122 0.5576 -0.4264 0.7122 
-0.6653 0.6088 0.4321 -0.6653 0.6088 0.4321 
0.6930 0.6626 0.2841 0.6930 0.6626 0.2841 
0.7786 0.4339 0.4534 0.7786 0.4339 0.4534 
0.0335 0.9574 -0.2869 0.0335 0.9574 -0.2869 
-0.5531 -0.6196 0.5569 -0.5531 -0.6196 0.5569 
-0.7508 0.3447 0.5635 -0.7508 0.3447 0.5635 
0.3934 -0.2627 -0.8810 0.3934 -0.2627 -0.8810 
0.9160 0.2789 -0.2883 0.9160 0.2789 -0.2883 
-0.0249 0.9968 -0.0762 -0.0249 0.9968 -0.0762 
-0.0176 0.0036 0.9998 -0.0176 0.0036 0.9998 
-0.7981 0.4618 0.3870 -0.7981 0.4618 0.3870 
0.9852 0.1641 0.0502 0.9852 0.1641 0.0502 
0.1034 -0.6209 -0.7770 0.1034 -0.6209 -0.7770 
-0.6428 0.2876 -0.7100 -0.6428 0.2876 -0.7100 
-0.0845 0.6146 -0.7843 -0.0845 0.6146 -0.7843 
-0.3229 -0.8276 0.4591 -0.3229 -0.8276 0.4591 
0.6546 0.4639 -0.5969 0.6546 0.4639 -0.5969 
0.9300 0.2282 0.2881 0.9300 0.2282 0.2881 
-0.2537 -0.9673 -0.0034 -0.2537 -0.9673 -0.0034 
0.5880 0.1654 0.7917 0.5880 0.1654 0.7917 
0.5509 0.7123 0.4349 0.5509 0.7123 0.4349 
-0.3577 0.5641 -0.7443 -0.3577 0.5641 -0.7443 
0.8292 -0.5212 -0.2020 0.8292 -0.5212 -0.2020 
0.7253 -0.2171 -0.6533 0.7253 -0.2171 -0.6533 
-0.6897 0.4783 0.5437 -0.6897 0.4783 0.5437 
-0.4888 -0.4906 0.7214 -0.4888 -0.4906 0.7214 
0.6279 -0.5746 0.5249 0.6279 -0.5746 0.5249 
0.7719 -0.6274 -0.1024 0.7719 -0.6274 -0.1024 
0.8541 0.2815 0.4373 0.8541 0.2815 0.4373 
-0.7468 -0.1782 -0.6407 -0.7468 -0.1782 -0.6407 
-0.5685 -0.5214 0.6363 -0.5685 -0.5214 0.6363 
0.8899 0.0304 0.4552 0.8899 0.0304 0.4552 
-0.7637 -0.1480 0.6283 -0.7637 -0.1480 0.6283 
-0.2553 -0.4294 -0.8663 -0.2553 -0.4294 -0.8663 
0.0097 -0.1945 -0.9808 0.0097 -0.1945 -0.9808 
-0.4368 0.2908 -0.8512 -0.4368 0.2908 -0.8512 
-0.7993 -0.1516 -0.5815 -0.7993 -0.1516 -0.5815 
-0.9690 -0.2339 0.0790 -0.9690 -0.2339 0.0790 
0.1706 -0.7256 -0.6667 0.1706 -0.7256 -0.6667 
-0.6601 -0.7478 -0.0710 -0.6601 -0.7478 -0.0710 
-0.5183 -0.8103 0.2736 -0.5183 -0.8103 0.2736 
-0.3428 0.7344 -0.5858 -0.3428 0.7344 -0.5858 
0.6495 -0.7601 0.0199 0.6495 -0.7601 0.0199 
0.6101 -0.1093 0.7847 0.6101 -0.1093 0.7847 
-0.6725 0.6788 -0.2950 -0.6725 0.6788 -0.2950 
